6503.78 -2905.95 -2905.95
6586.18 -2932.36 -2932.36
6549.91 -2905.95 -2905.95
6514.29 -2880 -2880
6537.14 -2880 -2880
6166.15 -1550.77 -1550.77
6586.18 -2909.09 -2909.09
6491.43 -2857.14 -2857.14
6514.29 -2857.14 -2857.14
6537.14 -2857.14 -2857.14
6213.59 -1553.4 -1553.4
-35592.3 -10240 -10240
-33357.6 -9619.39 -9619.39
84.1183 -347.689 -347.689
6586.18 -2885.82 -2885.82
6491.43 -2834.29 -2834.29
6514.29 -2834.29 -2834.29
6243.9 -1548.49 -1548.49
6503.78 -2836.76 -2836.76
6526.85 -2836.76 -2836.76
6491.43 -2811.43 -2811.43
6456.64 -2786.55 -2786.55
6274.51 -1543.53 -1543.53
6503.78 -2813.69 -2813.69
6526.85 -2813.69 -2813.69
6491.43 -2788.57 -2788.57
6456.64 -2763.89 -2763.89
6243.9 -1523.51 -1523.51
6503.78 -2790.63 -2790.63
6526.85 -2790.63 -2790.63
6491.43 -2765.71 -2765.71
6213.59 -1503.69 -1503.69
6503.78 -2767.57 -2767.57
6526.85 -2767.57 -2767.57
6491.43 -2742.86 -2742.86
6776.47 -1642.78 -1642.78
6647.96 -1608.38 -1608.38
6592.33 -1591.71 -1591.71
6183.57 -1484.06 -1484.06
6669.47 -1603.37 -1603.37
6613.33 -1586.67 -1586.67
6524.72 -1562.26 -1562.26
6438.79 -1538.59 -1538.59
6166.15 -1464.62 -1464.62
6579.07 -1565.18 -1565.18
6491.43 -1541.22 -1541.22
6406.43 -1517.99 -1517.99
6166.15 -1452.31 -1452.31
6545.15 -1543.92 -1543.92
6458.48 -1520.41 -1520.41
6311.29 -1482.77 -1482.77
6201.16 -1453.98 -1453.98
6153.85 -1440 -1440
6136.65 -1433.11 -1433.11
6511.59 -1522.87 -1522.87
6425.86 -1499.8 -1499.8
6249.41 -1455.69 -1455.69
6141.54 -1427.69 -1427.69
6095.24 -1414.1 -1414.1
6107.43 -1414.1 -1414.1
6478.37 -1502.04 -1502.04
6393.57 -1479.4 -1479.4
6218.93 -1436.1 -1436.1
6141.54 -1415.38 -1415.38
6095.24 -1401.9 -1401.9
6078.48 -1395.26 -1395.26
6412.93 -1473.94 -1473.94
6298.61 -1444.75 -1444.75
6188.74 -1416.7 -1416.7
6141.54 -1403.08 -1403.08
6066.35 -1383.13 -1383.13
6049.81 -1376.6 -1376.6
6380.7 -1453.67 -1453.67
6267.59 -1425.02 -1425.02
6158.84 -1397.49 -1397.49
6112.15 -1384.11 -1384.11
6066.35 -1371 -1371
6049.81 -1364.53 -1364.53
6317.21 -1426.47 -1426.47
6236.86 -1405.49 -1405.49
6158.84 -1385.12 -1385.12
6112.15 -1371.87 -1371.87
6066.35 -1358.86 -1358.86
6049.81 -1352.45 -1352.45
6317.21 -1413.73 -1413.73
6236.86 -1392.94 -1392.94
6158.84 -1372.75 -1372.75
6112.15 -1359.62 -1359.62
6066.35 -1346.73 -1346.73
6049.81 -1340.38 -1340.38
6254.98 -1387.19 -1387.19
6206.44 -1373.66 -1373.66
6158.84 -1360.39 -1360.39
6112.15 -1347.37 -1347.37
6066.35 -1334.6 -1334.6
6049.81 -1328.3 -1328.3
6224.31 -1367.84 -1367.84
6176.31 -1354.56 -1354.56
6129.23 -1341.54 -1341.54
6112.15 -1335.12 -1335.12
6066.35 -1322.46 -1322.46
6049.81 -1316.23 -1316.23
6146.47 -1335.65 -1335.65
6129.23 -1329.23 -1329.23
6112.15 -1322.87 -1322.87
6066.35 -1310.33 -1310.33
6049.81 -1304.15 -1304.15
6129.23 -1316.92 -1316.92
6083.05 -1304.38 -1304.38
6066.35 -1298.2 -1298.2
6049.81 -1292.08 -1292.08
6099.9 -1298.37 -1298.37
6083.05 -1292.19 -1292.19
6066.35 -1286.07 -1286.07
6049.81 -1280 -1280
6099.9 -1286.12 -1286.12
6083.05 -1280 -1280
6066.35 -1273.93 -1273.93
6021.41 -1261.97 -1261.97
5527.27 -2016.97 -2016.97
5463.88 -1986.87 -1986.87
5480.3 -1972.15 -1972.15
6099.9 -1273.88 -1273.88
6083.05 -1267.81 -1267.81
6037.74 -1255.85 -1255.85
6021.41 -1249.95 -1249.95
5655.81 -2044.03 -2044.03
5589.01 -2012.82 -2012.82
5566.06 -1997.58 -1997.58
5628.09 -2012.82 -2012.82
5735.19 -2044.03 -2044.03
5800 -2060 -2060
875.284 -282.615 -282.615
6099.9 -1261.63 -1261.63
6083.05 -1255.62 -1255.62
6066.35 -1249.67 -1249.67
6021.41 -1237.93 -1237.93
5700 -2040 -2040
5720 -2040 -2040
5740 -2040 -2040
5760 -2040 -2040
5918.72 -2088.96 -2088.96
6129.23 -1255.38 -1255.38
6083.05 -1243.43 -1243.43
6066.35 -1237.54 -1237.54
6049.81 -1231.7 -1231.7
6217.14 -2172.77 -2172.77
884.312 -284.444 -284.444
884.211 -283.509 -283.509
6112.15 -1237.13 -1237.13
6095.24 -1231.24 -1231.24
6078.48 -1225.4 -1225.4
6433.39 -2226.09 -2226.09
6112.15 -1224.88 -1224.88
6095.24 -1219.05 -1219.05
6107.43 -1219.05 -1219.05
6489.82 -2223.16 -2223.16
6158.84 -1224.35 -1224.35
6141.54 -1218.46 -1218.46
6124.4 -1212.63 -1212.63
6136.65 -1212.63 -1212.63
6249.41 -1229.8 -1229.8
6171.21 -1211.98 -1211.98
6153.85 -1206.15 -1206.15
6166.15 -1206.15 -1206.15
6438.79 -1254.14 -1254.14
6231.41 -1211.32 -1211.32
6213.59 -1205.44 -1205.44
6166.15 -1193.85 -1193.85
497.661 -404.876 -404.876
501.053 -404.211 -404.211
6458.48 -1247.51 -1247.51
6471.47 -1247.51 -1247.51
6292.81 -1210.64 -1210.64
6243.9 -1198.83 -1198.83
-102187 -20266.7 -20266.7
497.661 -400.659 -400.659
6491.43 -1240.82 -1240.82
6504.49 -1240.82 -1240.82
6355.42 -1209.95 -1209.95
6274.51 -1192.16 -1192.16
-1177.38 -507.679 -507.679
-1159.75 -502.38 -502.38
-1144.84 -498.219 -498.219
6491.43 -1227.76 -1227.76
6504.49 -1227.76 -1227.76
6419.3 -1209.25 -1209.25
6336.63 -1191.29 -1191.29
-1172.44 -500.168 -500.168
-1157.33 -496 -496
-1142.48 -491.901 -491.901
6412.93 -1202.42 -1202.42
6491.43 -1214.69 -1214.69
6504.49 -1214.69 -1214.69
6419.3 -1196.38 -1196.38
6368.16 -1184.48 -1184.48
-1172.44 -494.79 -494.79
-1157.33 -490.667 -490.667
-1144.84 -487.619 -487.619
6380.7 -1183.52 -1183.52
6458.48 -1195.53 -1195.53
6471.47 -1195.53 -1195.53
6419.3 -1183.52 -1183.52
6368.16 -1171.74 -1171.74
-1172.44 -489.412 -489.412
-1157.33 -485.333 -485.333
-1149.6 -484.324 -484.324
6285.94 -1153.27 -1153.27
6425.86 -1176.57 -1176.57
6471.47 -1182.54 -1182.54
6419.3 -1170.65 -1170.65
6368.16 -1159.01 -1159.01
-1172.44 -484.034 -484.034
6092.31 -1107.69 -1107.69
6193.95 -1123.9 -1123.9
6393.57 -1157.79 -1157.79
6438.79 -1163.64 -1163.64
6419.3 -1157.79 -1157.79
6368.16 -1146.27 -1146.27
-1174.91 -479.663 -479.663
-1159.75 -475.658 -475.658
6092.31 -1095.38 -1095.38
6163.88 -1106.02 -1106.02
6393.57 -1144.92 -1144.92
6406.43 -1144.92 -1144.92
6355.42 -1133.53 -1133.53
6368.16 -1133.53 -1133.53
-1172.44 -473.277 -473.277
-1159.75 -470.313 -470.313
-1152 -469.333 -469.333
1793.63 -1434.9 -1434.9
6009.9 -1072.76 -1072.76
5965.28 -1062.64 -1062.64
6063.16 -1077.89 -1077.89
6163.88 -1093.59 -1093.59
6393.57 -1132.06 -1132.06
6406.43 -1132.06 -1132.06
6419.3 -1132.06 -1132.06
6368.16 -1120.8 -1120.8
-1162.18 -465.941 -465.941
1816.77 -1436.9 -1436.9
6009.9 -1060.57 -1060.57
5965.28 -1050.57 -1050.57
6063.16 -1065.65 -1065.65
6134.11 -1075.94 -1075.94
6425.86 -1124.85 -1124.85
6406.43 -1119.2 -1119.2
6419.3 -1119.2 -1119.2
6432.16 -1119.2 -1119.2
6038.66 -1053.4 -1053.4
5993.55 -1043.41 -1043.41
6063.16 -1053.4 -1053.4
6134.11 -1063.57 -1063.57
6393.57 -1106.33 -1106.33
6406.43 -1106.33 -1106.33
6419.3 -1106.33 -1106.33
6432.16 -1106.33 -1106.33
6067.69 -1046.15 -1046.15
5993.55 -1031.28 -1031.28
6063.16 -1041.15 -1041.15
6134.11 -1051.21 -1051.21
6425.86 -1098.99 -1098.99
6406.43 -1093.47 -1093.47
6451.72 -1098.99 -1098.99
6432.16 -1093.47 -1093.47
6126.6 -1043.88 -1043.88
6022.1 -1024 -1024
6092.31 -1033.85 -1033.85
6163.88 -1043.88 -1043.88
6425.86 -1086.06 -1086.06
6406.43 -1080.6 -1080.6
6451.72 -1086.06 -1086.06
6464.65 -1086.06 -1086.06
6022.1 -1011.81 -1011.81
6092.31 -1021.54 -1021.54
6193.95 -1036.49 -1036.49
6425.86 -1073.13 -1073.13
6438.79 -1073.13 -1073.13
6484.47 -1078.58 -1078.58
6464.65 -1073.13 -1073.13
1973.33 -1457.78 -1457.78
6254.98 -1034.09 -1034.09
6458.48 -1065.58 -1065.58
6471.47 -1065.58 -1065.58
6517.55 -1071.02 -1071.02
6497.46 -1065.58 -1065.58
1969.23 -1450.07 -1450.07
2001.13 -1460.28 -1460.28
6285.94 -1026.53 -1026.53
6491.43 -1057.96 -1057.96
6504.49 -1057.96 -1057.96
6517.55 -1057.96 -1057.96
6530.61 -1057.96 -1057.96
2011.43 -1462.86 -1462.86
6254.98 -1008.87 -1008.87
6458.48 -1039.59 -1039.59
6471.47 -1039.59 -1039.59
6517.55 -1044.9 -1044.9
6530.61 -1044.9 -1044.9
2055.47 -1476.2 -1476.2
6224.31 -991.372 -991.372
6458.48 -1026.6 -1026.6
6471.47 -1026.6 -1026.6
6517.55 -1031.84 -1031.84
6497.46 -1026.6 -1026.6
2117.29 -1501.35 -1501.35
2120.6 -1490.15 -1490.15
6224.31 -978.824 -978.824
6425.86 -1008.48 -1008.48
6471.47 -1013.6 -1013.6
6484.47 -1013.6 -1013.6
6497.46 -1013.6 -1013.6
-248.544 -382.757 -382.757
2136.54 -1482.11 -1482.11
6425.86 -995.556 -995.556
6471.47 -1000.61 -1000.61
6484.47 -1000.61 -1000.61
6497.46 -1000.61 -1000.61
-253.023 -377.054 -377.054
-248.544 -377.786 -377.786
6393.57 -977.688 -977.688
6471.47 -987.614 -987.614
6484.47 -987.614 -987.614
6530.61 -992.653 -992.653
-258.988 -373.541 -373.541
-253.515 -372.816 -372.816
-249.027 -373.541 -373.541
2217.32 -1511.81 -1511.81
6425.86 -969.697 -969.697
6471.47 -974.619 -974.619
6517.55 -979.592 -979.592
6530.61 -979.592 -979.592
-258.988 -368.56 -368.56
-253.515 -367.845 -367.845
-249.513 -369.279 -369.279
2270.97 -1527.74 -1527.74
6425.86 -956.768 -956.768
6504.49 -966.531 -966.531
6517.55 -966.531 -966.531
6564.1 -971.487 -971.487
-258.988 -363.58 -363.58
-254.008 -363.58 -363.58
-249.513 -364.288 -364.288
2289.43 -1519.35 -1519.35
6458.48 -948.629 -948.629
6504.49 -953.469 -953.469
6550.97 -958.359 -958.359
6597.94 -963.299 -963.299
-258.988 -358.599 -358.599
-254.008 -358.599 -358.599
-249.513 -359.298 -359.298
2327.27 -1523.31 -1523.31
6458.48 -935.635 -935.635
6537.85 -945.231 -945.231
6550.97 -945.231 -945.231
6597.94 -950.103 -950.103
-259.493 -354.308 -354.308
-254.503 -354.308 -354.308
-250 -355 -355
6491.43 -927.347 -927.347
6537.85 -932.103 -932.103
6550.97 -932.103 -932.103
6597.94 -936.907 -936.907
-254.503 -349.318 -349.318
-250 -350 -350
6524.72 -918.974 -918.974
6571.55 -923.711 -923.711
6550.97 -918.974 -918.974
6632.12 -928.497 -928.497
-250 -345 -345
6558.35 -910.516 -910.516
6605.6 -915.233 -915.233
6584.74 -910.516 -910.516
6666.67 -920 -920
20130.9 -3956.36 -3956.36
6592.33 -901.969 -901.969
6640 -906.667 -906.667
6618.86 -901.969 -901.969
6666.67 -906.667 -906.667
19626.7 -3811.56 -3811.56
19683.6 -3811.56 -3811.56
6640 -893.333 -893.333
6653.33 -893.333 -893.333
6666.67 -893.333 -893.333
20130.9 -3840 -3840
6640 -880 -880
6653.33 -880 -880
19626.7 -3697.78 -3697.78
19683.6 -3697.78 -3697.78
6674.76 -871.204 -871.204
6653.33 -866.667 -866.667
6709.89 -862.316 -862.316
6688.17 -857.801 -857.801
6745.4 -853.333 -853.333
6723.37 -848.842 -848.842
6745.4 -839.788 -839.788
6758.94 -839.788 -839.788
-242.884 -296.319 -296.319
6781.28 -830.638 -830.638
6794.89 -830.638 -830.638
-261.818 -290.909 -290.909
-256.97 -290.909 -290.909
-252.121 -290.909 -290.909
-247.742 -291.461 -291.461
-242.424 -290.909 -290.909
-238.027 -291.461 -291.461
6817.54 -821.39 -821.39
6831.23 -821.39 -821.39
-261.818 -286.061 -286.061
-256.97 -286.061 -286.061
-252.121 -286.061 -286.061
-247.742 -286.603 -286.603
-242.424 -286.061 -286.061
-237.576 -286.061 -286.061
-232.727 -286.061 -286.061
6854.19 -812.043 -812.043
6867.96 -812.043 -812.043
-247.742 -281.746 -281.746
-242.424 -281.212 -281.212
-237.576 -281.212 -281.212
-232.727 -281.212 -281.212
6891.24 -802.595 -802.595
6905.08 -802.595 -802.595
-5336.34 -685.07 -685.07
-247.742 -276.888 -276.888
-242.884 -276.888 -276.888
-237.576 -276.364 -276.364
-232.727 -276.364 -276.364
2193.63 -261.038 -261.038
2190.37 -260.107 -260.107
6966.56 -797.377 -797.377
6980.55 -797.377 -797.377
-5412.57 -682.667 -682.667
6966.56 -783.388 -783.388
6980.55 -783.388 -783.388
-796.254 -156.968 -156.968
-793.4 -156.968 -156.968
-789.666 -156.793 -156.793
7004.84 -773.626 -773.626
7018.9 -773.626 -773.626
-796.254 -154.114 -154.114
-792.517 -153.942 -153.942
-789.666 -153.942 -153.942
-787.692 -154.114 -154.114
6767.66 -735.319 -735.319
7043.54 -763.757 -763.757
7018.9 -759.56 -759.56
-796.254 -151.26 -151.26
-793.4 -151.26 -151.26
-790.546 -151.26 -151.26
-787.692 -151.26 -151.26
6767.66 -721.702 -721.702
7043.54 -749.613 -749.613
7057.68 -749.613 -749.613
-797.143 -148.571 -148.571
-793.4 -148.406 -148.406
-790.546 -148.406 -148.406
-788.571 -148.571 -148.571
-781.114 -148.241 -148.241
-778.263 -148.241 -148.241
-778.011 -148.737 -148.737
6731.85 -704.339 -704.339
7043.54 -735.47 -735.47
7057.68 -735.47 -735.47
-797.143 -145.714 -145.714
-793.4 -145.552 -145.552
-791.429 -145.714 -145.714
-788.571 -145.714 -145.714
-781.984 -145.552 -145.552
-780 -145.714 -145.714
-778.881 -146.04 -146.04
7004.84 -717.363 -717.363
7018.9 -717.363 -717.363
-797.143 -142.857 -142.857
-794.286 -142.857 -142.857
-791.429 -142.857 -142.857
-788.571 -142.857 -142.857
-782.857 -142.857 -142.857
-780 -142.857 -142.857
-779.754 -143.337 -143.337
7043.54 -707.182 -707.182
7057.68 -707.182 -707.182
-798.034 -140.156 -140.156
-794.286 -140 -140
-792.313 -140.156 -140.156
-789.452 -140.156 -140.156
-786.592 -140.156 -140.156
-783.732 -140.156 -140.156
7043.54 -693.039 -693.039
7057.68 -693.039 -693.039
-793.199 -137.45 -137.45
7082.67 -682.667 -682.667
7057.68 -678.895 -678.895
7082.67 -668.444 -668.444
7096.89 -668.444 -668.444
7082.67 -654.222 -654.222
7096.89 -654.222 -654.222
7082.67 -640 -640
7096.89 -640 -640
6613.33 -586.667 -586.667
7082.67 -625.778 -625.778
7096.89 -625.778 -625.778
6613.33 -573.333 -573.333
7082.67 -611.556 -611.556
7136.54 -614.972 -614.972
6613.33 -560 -560
7082.67 -597.333 -597.333
7136.54 -600.67 -600.67
6613.33 -546.667 -546.667
7122.23 -586.369 -586.369
7176.63 -589.663 -589.663
7162.25 -575.281 -575.281
7217.18 -578.531 -578.531
6803.85 -533.904 -533.904
7122.23 -557.765 -557.765
7217.18 -564.068 -564.068
-316.559 -104.602 -104.602
-311.054 -104.602 -104.602
6711.35 -876.396 -876.396
6674.29 -868.571 -868.571
7122.23 -543.464 -543.464
7217.18 -549.605 -549.605
6779.26 -877.037 -877.037
6740.55 -868.991 -868.991
6688.29 -853.333 -853.333
6651.43 -845.714 -845.714
6674.29 -845.714 -845.714
6647.96 -495.916 -495.916
7122.23 -529.162 -529.162
7258.18 -538.182 -538.182
-315.203 -98.6724 -98.6724
-312.463 -98.6724 -98.6724
-309.39 -98.5668 -98.5668
-247.371 -103.551 -103.551
6755.56 -853.333 -853.333
6779.26 -853.333 -853.333
6679.27 -837.818 -837.818
6642.16 -830.27 -830.27
6665.23 -830.27 -830.27
6688.29 -830.27 -830.27
6651.43 -822.857 -822.857
6674.29 -822.857 -822.857
6579.65 -808.421 -808.421
7162.25 -517.753 -517.753
7258.18 -523.636 -523.636
6717.06 -822.018 -822.018
6679.27 -814.545 -814.545
6582.86 -800 -800
6605.71 -800 -800
6628.57 -800 -800
6651.43 -800 -800
6615.22 -792.92 -792.92
6522.43 -779.13 -779.13
6619.1 -784.144 -784.144
6582.86 -777.143 -777.143
6651.43 -777.143 -777.143
6615.22 -770.266 -770.266
-702.373 -89.4915 -89.4915
6679.27 -768 -768
6582.86 -754.286 -754.286
6651.43 -754.286 -754.286
6615.22 -747.611 -747.611
7285.03 -482.743 -482.743
-702.373 -86.7797 -86.7797
6651.43 -731.429 -731.429
6615.22 -724.956 -724.956
7369.25 -473.526 -473.526
-702.373 -84.0678 -84.0678
6651.43 -708.571 -708.571
6615.22 -702.301 -702.301
-702.373 -81.3559 -81.3559
-699.661 -81.3559 -81.3559
-122.034 -81.3559 -81.3559
-122.034 -78.6441 -78.6441
-119.322 -78.6441 -78.6441
-116.61 -78.6441 -78.6441
-1735.11 -99.5555 -99.5555
-1724.37 -99.1425 -99.1425
-1718.45 -99.0055 -99.0055
-124.746 -75.9322 -75.9322
-122.034 -75.9322 -75.9322
-119.322 -75.9322 -75.9322
-116.61 -75.9322 -75.9322
-122.034 -73.2203 -73.2203
-119.322 -73.2203 -73.2203
-116.61 -73.2203 -73.2203
-1773.97 -187.493 -187.493
-1789.09 -181.818 -181.818
6524.6 -498.407 -498.407
6547.26 -498.407 -498.407
6684.44 -497.778 -497.778
6514.29 -480 -480
6479.29 -475.752 -475.752
6501.95 -475.752 -475.752
6467.37 -471.579 -471.579
6489.82 -471.579 -471.579
-214.183 -101.992 -101.992
6810.57 -483.019 -483.019
6456.64 -453.097 -453.097
6479.29 -453.097 -453.097
6444.91 -449.123 -449.123
6467.37 -449.123 -449.123
6433.39 -445.217 -445.217
-6023.53 -1430.59 -1430.59
-5617.78 -1351.11 -1351.11
-212.911 -96.3168 -96.3168
7077.65 -476.863 -476.863
6708.15 -450.37 -450.37
6433.98 -430.442 -430.442
6400 -426.667 -426.667
6422.46 -426.667 -426.667
6388.87 -422.957 -422.957
6355.86 -419.31 -419.31
6323.42 -415.726 -415.726
-6689.03 -1486.45 -1486.45
-6400 -1440 -1440
-6128.48 -1396.36 -1396.36
-5872.94 -1355.29 -1355.29
-5475.56 -1280 -1280
6344.35 -400.696 -400.696
6366.61 -400.696 -400.696
6333.79 -397.241 -397.241
6301.54 -393.846 -393.846
-6606.45 -1403.87 -1403.87
-6320 -1360 -1360
-6240 -1360 -1360
-6160 -1360 -1360
6708.15 -402.963 -402.963
6377.54 -381.754 -381.754
6344.35 -378.435 -378.435
6366.61 -378.435 -378.435
6279.66 -371.966 -371.966
-1592.38 -121.905 -121.905
-6741.33 -1365.33 -1365.33
-6885.52 -1412.41 -1412.41
-6570.67 -1365.33 -1365.33
6708.15 -379.259 -379.259
6377.54 -359.298 -359.298
6235.9 -350.085 -350.085
40464.5 -1321.29 -1321.29
-6741.33 -1280 -1280
-7131.43 -1371.43 -1371.43
6708.15 -355.556 -355.556
6377.54 -336.842 -336.842
89417.1 -2742.86 -2742.86
-6741.33 -1194.67 -1194.67
-7395.56 -1327.41 -1327.41
6586.18 -325.818 -325.818
6322.09 -311.652 -311.652
5931.71 -291.382 -291.382
139093 -3982.22 -3982.22
6214.02 -284.444 -284.444
5790.48 -264.127 -264.127
2578.89 -113.358 -113.358
2578.82 -112.941 -112.941
6214.02 -262.564 -262.564
2578.82 -103.529 -103.529
2646.29 -67.1161 -67.1161
2607.06 -65.8824 -65.8824
-542.373 -13.5593 -13.5593
-539.661 -10.8475 -10.8475
322.963 5.92593 5.92593
85440 800 800
72084.2 673.684 673.684
91136 1024 1024
91136 1194.67 1194.67
90965.3 1365.33 1365.33
91136 1365.33 1365.33
80564.7 1204.71 1204.71
42400 1440 1440
40056.5 1355.29 1355.29
134400 2304 2304
122415 2094.55 2094.55
134912 2304 2304
122880 2094.55 2094.55
112853 1920 1920
104369 1772.31 1772.31
104763 1772.31 1772.31
90965.3 1536 1536
80564.7 1355.29 1355.29
40056.5 1505.88 1505.88
122182 2327.27 2327.27
112213 2133.33 2133.33
122647 2327.27 2327.27
112640 2133.33 2133.33
104172 1969.23 1969.23
104369 1969.23 1969.23
113280 2133.33 2133.33
97280 1828.57 1828.57
85280 1600 1600
112000 2346.67 2346.67
112213 2346.67 2346.67
112427 2346.67 2346.67
96548.6 2011.43 2011.43
96731.4 2011.43 2011.43
96914.3 2011.43 2011.43
104566 2166.15 2166.15
90794.7 1877.33 1877.33
85280 1760 1760
804.994 35.5145 35.5145
112000 2560 2560
122415 2792.73 2792.73
122647 2792.73 2792.73
103975 2363.08 2363.08
123578 2792.73 2792.73
97280 2194.29 2194.29
801.108 38.4296 38.4296
805.926 38.5185 38.5185
807.954 38.474 38.474
811.852 38.5185 38.5185
815.759 38.5632 38.5632
122182 3025.45 3025.45
122415 3025.45 3025.45
134912 3328 3328
112640 2773.33 2773.33
104763 2560 2560
797.232 41.3379 41.3379
802.035 41.4335 41.4335
805.926 41.4815 41.4815
808.889 41.4815 41.4815
812.793 41.5295 41.5295
816.705 41.5777 41.5777
134144 3584 3584
122182 3258.18 3258.18
134656 3584 3584
134912 3584 3584
122880 3258.18 3258.18
802.963 44.4444 44.4444
805.926 44.4444 44.4444
808.889 44.4444 44.4444
149333 4266.67 4266.67
149618 4266.67 4266.67
134912 3840 3840
122880 3490.91 3490.91
149618 4551.11 4551.11
134912 4096 4096
-74.6436 49.7624 49.7624
-74.4828 52.4138 52.4138
-74.4828 55.1724 55.1724
-71.5699 55.0538 55.0538
2166.58 110.823 110.823
-74.4828 57.931 57.931
-71.493 57.7444 57.7444
-74.4828 60.6897 60.6897
-71.4163 60.4292 60.4292
-74.4026 63.38 63.38
-71.493 63.2438 63.2438
-68.6695 63.176 63.176
-74.4026 66.1356 66.1356
-71.493 65.9936 65.9936
-71.493 68.7433 68.7433
43178.7 3242.67 3242.67
61683.8 4876.19 4876.19
41868.4 3303.23 3303.23
76197.6 6174.12 6174.12
48071.1 3887.41 3887.41
41951 3385.81 3385.81
42033.5 3385.81 3385.81
86357.3 7168 7168
61805.7 5120 5120
41455.5 3550.97 3550.97
107947 9173.33 9173.33
76348.2 6475.29 6475.29
65024 5504 5504
62049.5 5241.9 5241.9
84000 6880 6880
70871.6 5793.68 5793.68
129536 11264 11264
86528 7509.33 7509.33
81280 7040 7040
81440 7040 7040
95817.1 8045.71 8045.71
89600 7509.33 7509.33
84160 7040 7040
79360 6625.88 6625.88
84480 7040 7040
75235.6 6257.78 6257.78
108160 9600 9600
108373 9600 9600
108587 9600 9600
96000 8228.57 8228.57
84160 7200 7200
84320 7200 7200
84480 7200 7200
103385 9058.46 9058.46
84160 7360 7360
84320 7360 7360
84480 7360 7360
96000 8594.29 8594.29
84160 7520 7520
-37333.3 10453.3 10453.3
-34264.6 9649.23 9649.23
-29525.3 8362.67 8362.67
-29354.7 8362.67 8362.67
-27360 7840 7840
-24177.8 6968.89 6968.89
103385 9649.23 9649.23
-37333.3 10666.7 10666.7
-31817.1 9142.86 9142.86
-29525.3 8533.33 8533.33
-29354.7 8533.33 8533.33
-27360 8000 8000
-45056 13056 13056
-34461.5 10043.1 10043.1
-34264.6 10043.1 10043.1
-29525.3 8704 8704
-31451.4 9325.71 9325.71
-41192.7 12101.8 12101.8
-40960 12101.8 12101.8
-34461.5 10240 10240
-31817.1 9508.57 9508.57
-27680 8320 8320
-27520 8320 8320
-45056 13568 13568
-37333.3 11306.7 11306.7
-31817.1 9691.43 9691.43
-27680 8480 8480
-27520 8480 8480
-37333.3 11520 11520
-34264.6 10633.8 10633.8
-29525.3 9216 9216
-29354.7 9216 9216
-37333.3 11733.3 11733.3
-31817.1 10057.1 10057.1
-29525.3 9386.67 9386.67
-29354.7 9386.67 9386.67
-31634.3 10240 10240
19.3939 471.919 471.919
25.8586 471.919 471.919
32.3232 471.919 471.919
38.6902 470.73 470.73
19.2965 475.98 475.98
25.7286 475.98 475.98
32.2418 477.179 477.179
38.6902 477.179 477.179
44.9123 474.787 474.787
19.2 480 480
25.6 480 480
32 480 480
38.4 480 480
44.6883 478.803 478.803
50.5679 474.074 474.074
19.1521 485.187 485.187
25.5362 485.187 485.187
31.9202 485.187 485.187
38.209 483.98 483.98
44.4665 482.779 482.779
50.3194 478.034 478.034
56.6093 478.034 478.034
19.1521 491.571 491.571
25.5362 491.571 491.571
31.9202 491.571 491.571
38.3042 491.571 491.571
44.5771 490.348 490.348
50.8189 489.132 489.132
57.1712 489.132 489.132
63.6816 490.348 490.348
70.4 492.8 492.8
25.4094 495.484 495.484
31.7618 495.484 495.484
38.209 496.716 496.716
44.4665 495.484 495.484
50.6931 494.257 494.257
57.1712 495.484 495.484
63.5236 495.484 495.484
1382.58 231.916 231.916
1380.74 231.111 231.111
-1863.04 1058.85 1058.85
19.0099 500.594 500.594
25.3465 500.594 500.594
31.6832 500.594 500.594
38.1141 501.836 501.836
44.3564 500.594 500.594
50.6931 500.594 500.594
57.1712 501.836 501.836
70.4 505.6 505.6
-1936.93 1083.6 1083.6
-1943.96 1095.19 1095.19
-1909.84 1083.6 1083.6
-1886.32 1077.89 1077.89
-1863.04 1072.25 1072.25
18.963 505.679 505.679
25.284 505.679 505.679
31.6049 505.679 505.679
38.0198 506.931 506.931
44.2469 505.679 505.679
50.5679 505.679 505.679
57.0297 506.931 506.931
63.5236 508.189 508.189
70.4 512 512
908.475 216.949 216.949
911.186 216.949 216.949
12.7047 514.541 514.541
19.0099 513.267 513.267
25.284 512 512
31.6832 513.267 513.267
38.0198 513.267 513.267
44.3564 513.267 513.267
50.8189 514.541 514.541
57.4564 517.107 517.107
64 518.4 518.4
70.5764 519.699 519.699
865.085 219.661 219.661
908.475 219.661 219.661
911.186 219.661 219.661
12.7363 522.189 522.189
19.0099 519.604 519.604
25.284 518.321 518.321
31.6832 519.604 519.604
38.1141 520.893 520.893
44.4665 520.893 520.893
50.9453 522.189 522.189
57.6 524.8 524.8
64.3216 527.437 527.437
71.1111 530.101 530.101
868.865 224.754 224.754
871.606 224.754 224.754
865.085 222.373 222.373
870.508 222.373 222.373
908.475 222.373 222.373
-1385.66 250.566 250.566
12.7047 527.246 527.246
18.963 524.642 524.642
25.1597 522.064 522.064
31.5271 523.35 523.35
37.9259 524.642 524.642
44.4665 527.246 527.246
51.2 531.2 531.2
870.73 227.983 227.983
872.54 227.738 227.738
-25796.9 16541.5 16541.5
18.7775 525.77 525.77
24.9148 523.212 523.212
31.2195 524.488 524.488
872.602 231.226 231.226
-37546.7 24177.8 24177.8
-22357.3 14506.7 14506.7
-20800 13600 13600
24.9148 529.44 529.44
-22357.3 14677.3 14677.3
-1429.33 970.667 970.667
-1418.67 970.667 970.667
-1423.4 977.261 977.261
-1412.78 977.261 977.261
-1423.4 987.884 987.884
169.456 587.045 587.045
163.791 594.502 594.502
168.263 588.92 588.92
173.458 586.168 586.168
179.021 584.802 584.802
167.869 593.536 593.536
173.458 592.15 592.15
178.605 589.395 589.395
184.988 590.769 590.769
162.254 600.939 600.939
167.869 599.532 599.532
173.458 598.131 598.131
179.021 596.737 596.737
185.421 598.131 598.131
953.962 301.887 301.887
2440.08 521.385 521.385
161.874 605.527 605.527
167.477 604.112 604.112
173.054 602.704 602.704
179.021 602.704 602.704
185.421 604.112 604.112
192.3 606.948 606.948
954.32 305.988 305.988
953.962 304.906 304.906
955.854 304.547 304.547
2440.08 526.599 526.599
2440.33 525.528 525.528
167.477 610.093 610.093
173.054 608.671 608.671
179.021 608.671 608.671
185.855 611.522 611.522
192.753 614.4 614.4
948.599 310.119 310.119
953.547 309.751 309.751
957.72 310.119 310.119
956.218 308.652 308.652
956.981 307.925 307.925
960 307.925 307.925
167.477 616.075 616.075
173.054 614.639 614.639
179.021 614.639 614.639
185.855 617.518 617.518
193.664 623.357 623.357
199.716 623.357 623.357
955.815 313.532 313.532
962.291 314.654 314.654
958.483 312.417 312.417
2440.33 535.935 535.935
173.054 620.606 620.606
179.021 620.606 620.606
185.855 623.513 623.513
193.664 629.409 629.409
199.716 629.409 629.409
206.746 632.399 632.399
958.093 317.33 317.33
963.441 318.088 318.088
961.902 316.576 316.576
2445.3 542.24 542.24
192.753 632.471 632.471
199.716 635.461 635.461
206.746 638.48 638.48
213.842 641.527 641.527
957.324 321.147 321.147
958.093 320.381 320.381
964.593 321.531 321.531
964.195 320.381 320.381
2475.37 555.372 555.372
1594.41 312.922 312.922
206.256 643.033 643.033
213.842 647.637 647.637
220.478 649.187 649.187
955.407 324.593 324.593
959.617 324.982 324.982
960.382 324.205 324.205
965.749 324.982 324.982
966.499 324.205 324.205
2480.5 561.822 561.822
114735 24669.1 24669.1
213.333 652.19 652.19
220.478 655.311 655.311
226.062 653.747 653.747
961.921 328.836 328.836
963.837 328.441 328.441
966.906 328.441 328.441
967.656 327.656 327.656
90148.6 19565.7 19565.7
114967 24901.8 24901.8
635.705 309.262 309.262
963.077 332.308 332.308
966.154 332.308 332.308
968.067 331.909 331.909
968.814 331.114 331.114
627.114 312.125 312.125
629.978 312.125 312.125
632.841 312.125 312.125
634.994 311.777 311.777
637.143 311.429 311.429
640 311.429 311.429
963.077 335.385 335.385
966.154 335.385 335.385
969.231 335.385 335.385
968.814 334.18 334.18
621.387 314.989 314.989
624.251 314.989 314.989
627.114 314.989 314.989
629.978 314.989 314.989
632.841 314.989 314.989
634.994 314.637 314.637
637.143 314.286 314.286
640.715 314.637 314.637
647.919 316.76 316.76
650.067 316.405 316.405
966.154 338.462 338.462
969.231 338.462 338.462
969.976 337.65 337.65
79040 17600 17600
618.524 317.852 317.852
621.387 317.852 317.852
624.251 317.852 317.852
627.816 318.208 318.208
630.683 318.208 318.208
632.841 317.852 317.852
634.994 317.497 317.497
637.855 317.497 317.497
640.715 317.497 317.497
647.191 319.281 319.281
649.338 318.923 318.923
969.231 341.538 341.538
624.251 320.716 320.716
627.816 321.075 321.075
629.978 320.716 320.716
632.841 320.716 320.716
634.994 320.358 320.358
637.855 320.358 320.358
640.715 320.358 320.358
647.191 322.157 322.157
649.338 321.796 321.796
627.114 323.579 323.579
629.978 323.579 323.579
632.841 323.579 323.579
634.994 323.218 323.218
637.143 322.857 322.857
640.715 323.218 323.218
647.919 325.399 325.399
650.067 325.034 325.034
2348.55 853.333 853.333
629.978 326.443 326.443
632.841 326.443 326.443
635.705 326.443 326.443
637.855 326.078 326.078
640.715 326.078 326.078
649.38 329.019 329.019
633.55 329.675 329.675
635.705 329.307 329.307
637.855 328.939 328.939
641.432 329.307 329.307
650.847 332.655 332.655
633.55 332.542 332.542
636.417 332.542 332.542
638.568 332.17 332.17
642.15 332.542 332.542
4608 1915.87 1915.87
634.26 335.785 335.785
637.13 335.785 335.785
4578.46 1920 1920
637.13 338.655 338.655
4578.46 1936.41 1936.41
1877.33 4232.53 4232.53
1818.95 4210.53 4210.53
1852.63 4210.53 4210.53
1837.95 4102.56 4102.56
1824 4000 4000
1798.92 4358.92 4358.92
1809.07 4300.8 4300.8
1818.95 4244.21 4244.21
1852.63 4244.21 4244.21
1837.95 4135.38 4135.38
1824 4032 4032
1798.92 4393.51 4393.51
1785.26 4277.89 4277.89
1818.95 4277.89 4277.89
1828.57 4222.34 4222.34
1837.95 4168.21 4168.21
1847.09 4115.44 4115.44
1920 4818.82 4818.82
1823.56 4488.77 4488.77
1785.26 4311.58 4311.58
1818.95 4311.58 4311.58
1828.57 4255.58 4255.58
1837.95 4201.03 4201.03
1847.09 4147.85 4147.85
1903.59 4201.03 4201.03
1920 4856.47 4856.47
1823.56 4523.84 4523.84
1809.07 4403.2 4403.2
1795.32 4288.83 4288.83
1805.13 4233.85 4233.85
1837.95 4233.85 4233.85
1847.09 4180.25 4180.25
1903.59 4233.85 4233.85
1936.41 4233.85 4233.85
1798.92 4497.3 4497.3
1785.26 4378.95 4378.95
1772.31 4266.67 4266.67
1782.28 4212.66 4212.66
1814.68 4212.66 4212.66
1847.09 4212.66 4212.66
1903.59 4266.67 4266.67
1911.9 4212.66 4212.66
1920 4160 4160
1927.9 4108.64 4108.64
4408.89 2054.32 2054.32
1211.79 521.63 521.63
1785.26 4412.63 4412.63
1772.31 4299.49 4299.49
1782.28 4245.06 4245.06
1792 4192 4192
1847.09 4245.06 4245.06
1903.59 4299.49 4299.49
1911.9 4245.06 4245.06
1920 4192 4192
1927.9 4140.25 4140.25
4436.27 2082.98 2082.98
1211.79 525.643 525.643
1809.07 4505.6 4505.6
1795.32 4388.57 4388.57
1782.28 4277.47 4277.47
1792 4224 4224
1847.09 4277.47 4277.47
1879.49 4277.47 4277.47
1888 4224 4224
1896.3 4171.85 4171.85
4448 2112 2112
4464 2112 2112
1204 528 528
1209.89 528.826 528.826
3413.33 962.735 962.735
1809.07 4539.73 4539.73
1795.32 4421.82 4421.82
1782.28 4309.87 4309.87
1792 4256 4256
1824 4256 4256
1856 4256 4256
1864.69 4203.46 4203.46
1850.6 4102.17 4102.17
1204 532 532
1208 532 532
1212 532 532
1833.51 4635.68 4635.68
1795.32 4455.06 4455.06
1782.28 4342.28 4342.28
1792 4288 4288
1824 4288 4288
1856 4288 4288
1864.69 4235.06 4235.06
1850.6 4133.01 4133.01
1208 536 536
1212 536 536
1220 536 536
1818.95 4547.37 4547.37
1782.28 4374.68 4374.68
1792 4320 4320
1824 4320 4320
1856 4320 4320
1841.95 4214.63 4214.63
1828.57 4114.29 4114.29
1208 540 540
1220 540 540
-1697.08 1955.96 1955.96
-1692.2 1967.01 1967.01
-1687.27 1978.18 1978.18
-1672.73 1978.18 1978.18
-1658.18 1978.18 1978.18
-1643.64 1978.18 1978.18
1805.13 4463.59 4463.59
1792 4352 4352
1847.09 4407.09 4407.09
1856 4352 4352
1864.69 4298.27 4298.27
1220 544 544
-1687.6 1959.33 1959.33
-1682.7 1970.34 1970.34
-1687.27 1992.73 1992.73
-1672.73 1992.73 1992.73
-1658.18 1992.73 1992.73
-1643.64 1992.73 1992.73
-1629.09 1992.73 1992.73
-1614.55 1992.73 1992.73
-1600 1992.73 1992.73
1879.49 4439.49 4439.49
1864.69 4329.88 4329.88
-1701.9 1973.63 1973.63
-1687.6 1973.63 1973.63
-1682.7 1984.72 1984.72
-1677.74 1995.93 1995.93
-1663.28 1995.93 1995.93
-1658.18 2007.27 2007.27
-1643.64 2007.27 2007.27
-1629.09 2007.27 2007.27
-1614.55 2007.27 2007.27
-1600 2007.27 2007.27
-1585.45 2007.27 2007.27
-1588.97 2030.34 2030.34
-1735.59 2010.4 2010.4
-1701.9 1987.93 1987.93
-1678.22 1976.89 1976.89
-1682.7 1999.1 1999.1
-1668.31 1999.1 1999.1
-1663.28 2010.4 2010.4
-1658.18 2021.82 2021.82
-1643.64 2021.82 2021.82
-1629.09 2021.82 2021.82
-1614.55 2021.82 2021.82
-1600 2021.82 2021.82
-1585.45 2021.82 2021.82
-1579.89 2033.37 2033.37
-1735.59 2024.86 2024.86
-1701.9 2002.23 2002.23
-1678.22 1991.11 1991.11
-1673.3 2002.23 2002.23
-1668.31 2013.48 2013.48
-1663.28 2024.86 2024.86
-1648.81 2024.86 2024.86
-1643.64 2036.36 2036.36
-1629.09 2036.36 2036.36
-1614.55 2036.36 2036.36
-1600 2036.36 2036.36
-1585.45 2036.36 2036.36
-1570.91 2036.36 2036.36
-1583.35 2071.68 2071.68
-1938.76 587.883 587.883
-1754.61 2027.87 2027.87
-1740.22 2027.87 2027.87
-1725.84 2027.87 2027.87
-1692.44 2005.33 2005.33
-1668.95 1994.25 1994.25
-1664 2005.33 2005.33
-1658.99 2016.54 2016.54
-1653.93 2027.87 2027.87
-1648.81 2039.32 2039.32
-1634.35 2039.32 2039.32
-1629.09 2050.91 2050.91
-1614.55 2050.91 2050.91
-1600 2050.91 2050.91
-1585.45 2050.91 2050.91
-1570.91 2050.91 2050.91
-1574.25 2074.48 2074.48
-1577.67 2098.6 2098.6
-1590.53 2135.86 2135.86
-1735.11 2019.56 2019.56
-1730.5 2030.84 2030.84
-1716.2 2030.84 2030.84
-1692.44 2019.56 2019.56
-1659.78 1997.36 1997.36
-1654.81 2008.4 2008.4
-1649.78 2019.56 2019.56
-1653.93 2042.25 2042.25
-1648.81 2053.79 2053.79
-1634.35 2053.79 2053.79
-1619.89 2053.79 2053.79
-1614.55 2065.45 2065.45
-1600 2065.45 2065.45
-1585.45 2065.45 2065.45
-1570.91 2065.45 2065.45
-1565.26 2077.26 2077.26
-1568.55 2101.27 2101.27
-1581.18 2138.35 2138.35
-1547.91 2113.49 2113.49
-3810.23 2837.83 2837.83
-1744.8 2045.14 2045.14
-1730.5 2045.14 2045.14
-1716.2 2045.14 2045.14
-1692.44 2033.78 2033.78
-1668.95 2022.54 2022.54
-1654.81 2022.54 2022.54
-1649.78 2033.78 2033.78
-1653.93 2056.63 2056.63
-1648.81 2068.25 2068.25
-1634.35 2068.25 2068.25
-1619.89 2068.25 2068.25
-1605.42 2068.25 2068.25
-1600 2080 2080
-1585.45 2080 2080
-1570.91 2080 2080
-1565.26 2091.89 2091.89
-1568.55 2116.07 2116.07
-1571.93 2140.82 2140.82
-1538.96 2116.07 2116.07
-1735.11 2048 2048
-1730.5 2059.44 2059.44
-1716.2 2059.44 2059.44
-1692.44 2048 2048
-1668.95 2036.69 2036.69
-1645.71 2025.49 2025.49
-1640.66 2036.69 2036.69
-1644.69 2059.44 2059.44
-1648.81 2082.71 2082.71
-1634.35 2082.71 2082.71
-1619.89 2082.71 2082.71
-1605.42 2082.71 2082.71
-1590.96 2082.71 2082.71
-1585.45 2094.55 2094.55
-1570.91 2094.55 2094.55
-1556.36 2094.55 2094.55
-1568.55 2130.87 2130.87
-1571.93 2155.79 2155.79
-1538.96 2130.87 2130.87
-1498.18 2094.55 2094.55
-5940.51 4758.97 4758.97
-5760 4640 4640
-1744.8 2073.74 2073.74
-1740.22 2085.39 2085.39
-1716.2 2073.74 2073.74
-1692.44 2062.22 2062.22
-1668.95 2050.83 2050.83
-1636.72 2028.42 2028.42
-1631.65 2039.56 2039.56
-1644.69 2073.74 2073.74
-1639.55 2085.39 2085.39
-1634.35 2097.18 2097.18
-1619.89 2097.18 2097.18
-1605.42 2097.18 2097.18
-1590.96 2097.18 2097.18
-1576.5 2097.18 2097.18
-1570.91 2109.09 2109.09
-1556.36 2109.09 2109.09
-1559.54 2133.33 2133.33
-1571.93 2170.76 2170.76
-1547.91 2158.14 2158.14
-1754.61 2099.78 2099.78
-1740.22 2099.78 2099.78
-1716.2 2088.04 2088.04
-1692.44 2076.44 2076.44
-1668.95 2064.97 2064.97
-1636.72 2042.4 2042.4
-1631.65 2053.63 2053.63
-1635.56 2076.44 2076.44
-1639.55 2099.78 2099.78
-1625.17 2099.78 2099.78
-1619.89 2111.64 2111.64
-1605.42 2111.64 2111.64
-1590.96 2111.64 2111.64
-1576.5 2111.64 2111.64
-1570.91 2123.64 2123.64
-1556.36 2123.64 2123.64
-1559.54 2148.05 2148.05
-1571.93 2185.73 2185.73
-1937.68 1039.56 1039.56
-1754.61 2114.16 2114.16
-1740.22 2114.16 2114.16
-1706.67 2090.67 2090.67
-1683.09 2079.12 2079.12
-1659.78 2067.69 2067.69
-1636.72 2056.39 2056.39
-1596.56 2023.23 2023.23
-1626.52 2079.12 2079.12
-1630.39 2102.35 2102.35
-1616.09 2102.35 2102.35
-1610.79 2114.16 2114.16
-1605.42 2126.1 2126.1
-1590.96 2126.1 2126.1
-1576.5 2126.1 2126.1
-1570.91 2138.18 2138.18
-1556.36 2138.18 2138.18
-1559.54 2162.76 2162.76
-1562.79 2187.91 2187.91
1481.37 680.506 680.506
1483.32 679.278 679.278
-1730.5 2116.65 2116.65
-1697.24 2093.26 2093.26
-1673.85 2081.76 2081.76
-1610.32 2036.99 2036.99
-1571.22 2004.66 2004.66
-1617.58 2081.76 2081.76
-1621.33 2104.89 2104.89
-1607.11 2104.89 2104.89
-1601.79 2116.65 2116.65
-1596.4 2128.54 2128.54
-1582.02 2128.54 2128.54
-1576.5 2140.56 2140.56
-1570.91 2152.73 2152.73
-1556.36 2152.73 2152.73
1486.75 687.622 687.622
-7089.23 5868.31 5868.31
-1720.89 2119.11 2119.11
-1697.24 2107.4 2107.4
-1673.85 2095.82 2095.82
-1593.19 2028.94 2028.94
-1554.76 1997.07 1997.07
-1697.24 2121.55 2121.55
-1546.67 2000 2000
3103.35 1567.35 1567.35
3128.89 1590.78 1590.78
3001.73 1515.92 1515.92
3128.89 1601.32 1601.32
3082.04 1536 1536
3080 1530 1530
1498.42 732.771 732.771
1497.62 730.091 730.091
1505.05 731.429 731.429
1498.42 737.468 737.468
1497.62 734.771 734.771
1505.05 736.117 736.117
1498.42 742.165 742.165
1497.62 739.452 739.452
1505.05 740.806 740.806
1512.51 742.165 742.165
1520 743.529 743.529
1498.42 746.862 746.862
1500.37 745.495 745.495
1507.82 746.862 746.862
1515.29 748.235 748.235
1520 748.235 748.235
-1469.09 2327.27 2327.27
1489.03 751.56 751.56
1498.42 751.56 751.56
1500.37 750.183 750.183
1507.82 751.56 751.56
1515.29 752.941 752.941
1520 752.941 752.941
1524.71 752.941 752.941
-1469.09 2341.82 2341.82
1489.03 756.257 756.257
1493.72 756.257 756.257
1501.18 757.647 757.647
1503.12 756.257 756.257
1510.59 757.647 757.647
1515.29 757.647 757.647
1522.8 759.042 759.042
1491.76 762.353 762.353
1496.47 762.353 762.353
1501.18 762.353 762.353
1505.88 762.353 762.353
1510.59 762.353 762.353
1518.08 763.757 763.757
1496.47 767.059 767.059
1501.18 767.059 767.059
1505.88 767.059 767.059
1513.37 768.471 768.471
1520.89 769.889 769.889
1496.47 771.765 771.765
1501.18 771.765 771.765
1505.88 771.765 771.765
1513.37 773.186 773.186
1520.89 774.613 774.613
1491.76 776.471 776.471
1496.47 776.471 776.471
1501.18 776.471 776.471
1505.88 776.471 776.471
1516.16 779.336 779.336
1523.7 780.776 780.776
1496.47 781.176 781.176
1501.18 781.176 781.176
1505.88 781.176 781.176
1516.16 784.059 784.059
-1362.58 2298.49 2298.49
1501.18 785.882 785.882
1505.88 785.882 785.882
-1384.92 2350.16 2350.16
1501.18 790.588 790.588
1505.88 790.588 790.588
1002.11 483.78 483.78
-1415.87 2416.98 2416.98
1501.18 795.294 795.294
1002.11 486.659 486.659
1015.87 490.522 490.522
-1471.26 2501.15 2501.15
-1431.86 2458.76 2458.76
1002.11 489.539 489.539
1014.72 492.865 492.865
-1488.37 2545.12 2545.12
-1440 2487.27 2487.27
991.061 494.086 494.086
993.95 494.086 494.086
996.84 494.086 494.086
992.181 497.537 497.537
995.073 497.537 497.537
997.966 497.537 497.537
-1456.55 2545.29 2545.29
989.288 500.429 500.429
993.303 500.995 500.995
997.327 501.563 501.563
999.095 500.995 500.995
1001.99 500.995 500.995
-1505.88 2620.24 2620.24
-1464.97 2574.8 2574.8
990.407 503.891 503.891
994.428 504.462 504.462
998.458 505.034 505.034
1001.36 505.034 505.034
1003.13 504.462 504.462
-1505.88 2635.29 2635.29
-1464.97 2589.6 2589.6
989.751 507.937 507.937
992.653 507.937 507.937
996.686 508.513 508.513
999.591 508.513 508.513
1002.5 508.513 508.513
1005.4 508.513 508.513
-1512.05 2634.85 2634.85
-1505.88 2650.35 2650.35
-1464.97 2604.39 2604.39
989.091 512 512
990.874 511.419 511.419
993.78 511.419 511.419
997.818 512 512
1000.73 512 512
1003.64 512 512
1006.55 512 512
-1512.05 2649.82 2649.82
-1497.08 2649.82 2649.82
-1473.49 2634.42 2634.42
989.091 514.909 514.909
992 514.909 514.909
994.909 514.909 514.909
997.818 514.909 514.909
1000.73 514.909 514.909
1003.64 514.909 514.909
1006.55 514.909 514.909
-1520.94 2680.47 2680.47
-1497.08 2664.8 2664.8
-1473.49 2649.3 2649.3
989.091 517.818 517.818
992 517.818 517.818
994.909 517.818 517.818
997.818 517.818 517.818
1000.73 517.818 517.818
1003.64 517.818 517.818
1006.55 517.818 517.818
-1529.94 2711.48 2711.48
-1497.08 2679.77 2679.77
989.091 520.727 520.727
992 520.727 520.727
994.909 520.727 520.727
997.818 520.727 520.727
1001.87 521.32 521.32
1003.64 520.727 520.727
-1520.94 2710.59 2710.59
989.091 523.636 523.636
992 523.636 523.636
994.909 523.636 523.636
997.818 523.636 523.636
1001.87 524.232 524.232
-1503.26 2693.95 2693.95
992 526.545 526.545
994.909 526.545 526.545
997.818 526.545 526.545
1001.87 527.144 527.144
-1485.98 2677.7 2677.7
-1454.55 2647.27 2647.27
990.874 528.854 528.854
994.909 529.455 529.455
997.818 529.455 529.455
-1469.09 2661.82 2661.82
-1422.22 2602.67 2602.67
990.874 531.759 531.759
994.909 532.364 532.364
-1460.79 2661.24 2661.24
992 535.273 535.273
994.909 535.273 535.273
-770.169 536.949 536.949
41671.1 28871.1 28871.1
39477.9 27486.3 27486.3
39612.6 27486.3 27486.3
39343.2 27621.1 27621.1
469.153 566.78 566.78
471.864 566.78 566.78
29297.8 64853.3 64853.3
1029.8 1660.74 1660.74
6481.7 12691.1 12691.1
6346.67 12480 12480
6400 12480 12480
6346.67 12533.3 12533.3
6400 12533.3 12533.3
6733.91 13078.3 13078.3
6164.9 12329.8 12329.8
6217.14 12329.8 12329.8
6269.39 12329.8 12329.8
6733.91 13133.9 13133.9
-1522.7 801.247 801.247
-1524.68 805.618 805.618
-1521.35 805.618 805.618
818.113 730.566 730.566
821.132 730.566 730.566
824.151 730.566 730.566
827.17 730.566 730.566
828.235 728.847 728.847
-1524.68 808.947 808.947
-1519.38 807.896 807.896
-377.6 777.6 777.6
815.094 733.585 733.585
818.113 733.585 733.585
820.165 732.721 732.721
823.18 732.721 732.721
826.195 732.721 732.721
828.235 731.859 731.859
-1519.38 811.221 811.221
813.034 737.473 737.473
815.094 736.604 736.604
818.113 736.604 736.604
820.165 735.736 735.736
823.18 735.736 735.736
826.195 735.736 735.736
828.235 734.871 734.871
-1522.7 814.545 814.545
-1521.35 815.605 815.605
810.969 741.371 741.371
813.034 740.496 740.496
815.094 739.623 739.623
817.15 738.751 738.751
820.165 738.751 738.751
823.18 738.751 738.751
826.195 738.751 738.751
828.235 737.882 737.882
828.324 735.287 735.287
810.969 744.397 744.397
812.075 742.642 742.642
815.094 742.642 742.642
817.15 741.767 741.767
820.165 741.767 741.767
823.18 741.767 741.767
826.195 741.767 741.767
828.235 740.894 740.894
828.324 738.288 738.288
1120 984 984
8448 4198.4 4198.4
8087.64 4011.21 4011.21
8052.66 3985.82 3985.82
810.969 747.423 747.423
812.075 745.66 745.66
815.094 745.66 745.66
817.15 744.782 744.782
820.165 744.782 744.782
823.18 744.782 744.782
826.195 744.782 744.782
828.235 743.906 743.906
829.296 742.16 742.16
1120 988 988
8661.92 4330.96 4330.96
8392.05 4187.55 4187.55
8087.64 4027.52 4027.52
8052.66 4002.03 4002.03
813.034 749.563 749.563
815.094 748.679 748.679
818.113 748.679 748.679
820.165 747.797 747.797
823.18 747.797 747.797
826.195 747.797 747.797
828.235 746.918 746.918
828.324 744.291 744.291
1118.25 990.452 990.452
12720 9920 9920
12760 9920 9920
12800 9920 9920
8661.92 4348.49 4348.49
8392.05 4204.5 4204.5
8087.64 4043.82 4043.82
8103.95 4043.82 4043.82
813.034 752.586 752.586
815.094 751.698 751.698
818.113 751.698 751.698
820.165 750.813 750.813
823.18 750.813 750.813
826.195 750.813 750.813
827.262 749.048 749.048
1116.51 992.897 992.897
1115.29 988.279 988.279
12524.3 9806.77 9806.77
12563.7 9806.77 9806.77
12603.1 9806.77 9806.77
12450.9 9658.18 9658.18
12303.3 9514.03 9514.03
12160 9374.12 9374.12
8825.73 4457.62 4457.62
8661.92 4366.03 4366.03
8392.05 4221.46 4221.46
8087.64 4060.13 4060.13
8103.95 4060.13 4060.13
3988.21 6736.84 6736.84
4101.51 6881.72 6881.72
813.034 755.608 755.608
815.094 754.717 754.717
818.113 754.717 754.717
820.165 753.828 753.828
823.18 753.828 753.828
826.195 753.828 753.828
827.262 752.056 752.056
1116.51 996.885 996.885
1115.29 992.248 992.248
12484.9 9846.15 9846.15
12524.3 9846.15 9846.15
12563.7 9846.15 9846.15
12603.1 9846.15 9846.15
12450.9 9696.97 9696.97
12489.7 9696.97 9696.97
12528.5 9696.97 9696.97
12379.7 9552.24 9552.24
8721.66 4413.79 4413.79
8448 4266.67 4266.67
8139.49 4102.56 4102.56
8208.52 4129.03 4129.03
3976.17 6835.75 6835.75
4003.4 6835.75 6835.75
4073.98 6909.25 6909.25
4146.09 6984.35 6984.35
4266.67 7139.56 7139.56
813.034 758.63 758.63
815.094 757.736 757.736
818.113 757.736 757.736
820.165 756.843 756.843
823.18 756.843 756.843
826.195 756.843 756.843
827.262 755.065 755.065
1116.51 1000.87 1000.87
1115.29 996.217 996.217
12680 10040 10040
12524.3 9885.54 9885.54
12563.7 9885.54 9885.54
12412.1 9735.76 9735.76
12450.9 9735.76 9735.76
12489.7 9735.76 9735.76
12528.5 9735.76 9735.76
12567.3 9735.76 9735.76
8448 4283.73 4283.73
8192 4145.55 4145.55
8208.52 4145.55 4145.55
4003.4 6862.98 6862.98
4118.26 7012.17 7012.17
4191.65 7089.23 7089.23
4314.61 7248.54 7248.54
813.034 761.653 761.653
815.094 760.755 760.755
818.113 760.755 760.755
820.165 759.859 759.859
824.151 760.755 760.755
826.195 759.859 759.859
827.262 758.073 758.073
1118.25 1006.43 1006.43
1117.02 1001.74 1001.74
12680 10080 10080
12524.3 9924.92 9924.92
12373.3 9774.55 9774.55
12412.1 9774.55 9774.55
12265.1 9628.66 9628.66
12303.3 9628.66 9628.66
12160 9487.06 9487.06
8448 4300.8 4300.8
8192 4162.06 4162.06
8261.82 4189.09 4189.09
3961.26 6817.68 6817.68
4118.26 7040 7040
4285.84 7277.3 7277.3
812.075 763.774 763.774
815.094 763.774 763.774
818.113 763.774 763.774
820.165 762.874 762.874
823.18 762.874 762.874
826.195 762.874 762.874
827.262 761.081 761.081
1120 1012 1012
1120.5 1008.85 1008.85
12484.9 9964.31 9964.31
12334.5 9813.33 9813.33
12188.7 9666.87 9666.87
12226.9 9666.87 9666.87
12084.7 9524.71 9524.71
11946.7 9386.67 9386.67
8448 4317.87 4317.87
8192 4178.58 4178.58
8261.82 4205.71 4205.71
2159.87 1088.54 1088.54
4073.98 6991.83 6991.83
1573.08 1519.25 1519.25
812.075 766.792 766.792
815.094 766.792 766.792
817.15 765.889 765.889
820.165 765.889 765.889
824.151 766.792 766.792
826.195 765.889 765.889
827.262 764.089 764.089
1117.75 1017.59 1017.59
1120 1016 1016
1122.25 1014.41 1014.41
12295.8 9852.12 9852.12
12150.4 9705.08 9705.08
11835.4 9423.77 9423.77
12047.1 9562.35 9562.35
11909.6 9423.77 9423.77
8504.7 4364.03 4364.03
8192 4195.1 4195.1
8261.82 4222.34 4222.34
814.134 768.905 768.905
817.15 768.905 768.905
820.165 768.905 768.905
823.18 768.905 768.905
826.195 768.905 768.905
1117.75 1021.6 1021.6
1121.75 1021.6 1021.6
1124 1020 1020
11798.3 9460.87 9460.87
11739.4 9325.71 9325.71
1117.75 1025.6 1025.6
1121.75 1025.6 1025.6
1124 1024 1024
1117.24 1032.84 1032.84
1117.75 1029.61 1029.61
1121.75 1029.61 1029.61
896 1942.59 1942.59
898.246 1931.23 1931.23
903.09 1925.6 1925.6
1118.99 1038.49 1038.49
1119.5 1035.24 1035.24
1123.51 1035.24 1035.24
1322.15 1144.68 1144.68
898.246 1938.71 1938.71
905.731 1938.71 1938.71
905.275 1921.86 1921.86
904.828 1905.29 1905.29
1118.99 1042.52 1042.52
1117.75 1037.62 1037.62
1125.27 1040.88 1040.88
1129.29 1040.88 1040.88
1128 1036 1036
1324.44 1151.11 1151.11
895.627 1940.52 1940.52
905.731 1946.2 1946.2
910.554 1940.52 1940.52
912.696 1929.28 1929.28
917.457 1923.7 1923.7
1118.99 1046.54 1046.54
1117.75 1041.63 1041.63
1123.51 1043.26 1043.26
1127.52 1043.26 1043.26
1128 1040 1040
3000.73 2438.1 2438.1
320 732.632 732.632
905.731 1953.68 1953.68
913.216 1953.68 1953.68
918.018 1947.99 1947.99
920.116 1936.7 1936.7
927.536 1936.7 1936.7
1117.24 1048.92 1048.92
1116 1044 1044
1123.51 1047.27 1047.27
1127.52 1047.27 1047.27
1128 1044 1044
1128.47 1040.75 1040.75
3002.35 2456.47 2456.47
3000.73 2447.47 2447.47
918.588 1972.71 1972.71
926.118 1972.71 1972.71
933.647 1972.71 1972.71
941.176 1972.71 1972.71
951.504 1978.53 1978.53
961.893 1984.38 1984.38
975.238 1996.19 1996.19
982.857 1996.19 1996.19
1562.13 1556.19 1556.19
1560.83 1549.01 1549.01
1117.24 1052.94 1052.94
1116 1048 1048
1121.75 1049.64 1049.64
1125.76 1049.64 1049.64
1128 1048 1048
3003.99 2474.98 2474.98
3002.35 2465.88 2465.88
3000.73 2456.85 2456.85
928.85 1986.08 1986.08
936.401 1986.08 1986.08
946.746 1991.95 1991.95
954.32 1991.95 1991.95
964.748 1997.86 1997.86
975.238 2003.81 2003.81
982.857 2003.81 2003.81
990.476 2003.81 2003.81
1117.24 1056.95 1056.95
1116 1052 1052
1120 1052 1052
1124 1052 1052
1124.49 1048.72 1048.72
3003.99 2484.43 2484.43
2991.36 2466.23 2466.23
3000.73 2466.23 2466.23
10304 8416 8416
9704.19 7828.84 7828.84
9099.13 7318.26 7318.26
8746.67 7013.33 7013.33
939.172 1999.53 1999.53
949.555 2005.46 2005.46
957.151 2005.46 2005.46
967.619 2011.43 2011.43
975.238 2011.43 2011.43
985.791 2017.43 2017.43
993.433 2017.43 2017.43
1022.46 2029.55 2029.55
1017.92 2005.46 2005.46
995.965 1947.67 1947.67
1117.24 1060.97 1060.97
1116 1056 1056
1120 1056 1056
1124 1056 1056
3015.11 2503.11 2503.11
3002.35 2484.71 2484.71
3000.73 2475.6 2475.6
10434.4 8554.94 8554.94
9843.81 8045.71 8045.71
9788.24 7951.06 7951.06
9592.64 7768.28 7768.28
9001.29 7267.1 7267.1
8746.67 7040 7040
952.381 2019.05 2019.05
960 2019.05 2019.05
970.508 2025.07 2025.07
981.078 2031.14 2031.14
988.742 2031.14 2031.14
999.399 2037.24 2037.24
1010.12 2043.37 2043.37
1024 2055.76 2055.76
1041.22 2074.62 2074.62
1036.37 2049.55 2049.55
1022.49 2007.1 2007.1
1117.24 1064.99 1064.99
1116 1060 1060
1120 1060 1060
1120.5 1056.7 1056.7
3002.35 2494.12 2494.12
3000.73 2484.98 2484.98
10434.4 8587.34 8587.34
9843.81 8076.19 8076.19
9674.42 7888.37 7888.37
9377.08 7622.47 7622.47
8905.53 7217.02 7217.02
8746.67 7066.67 7066.67
973.413 2038.8 2038.8
984.024 2044.92 2044.92
994.699 2051.08 2051.08
1002.41 2051.08 2051.08
1013.17 2057.28 2057.28
1027.11 2069.79 2069.79
1044.42 2088.83 2088.83
1049.05 2082.45 2082.45
1117.24 1069.01 1069.01
1116 1064 1064
1120 1064 1064
1178.48 1059.04 1059.04
3002.35 2503.53 2503.53
3011.76 2503.53 2503.53
10434.4 8619.75 8619.75
9843.81 8106.67 8106.67
9216 7566.22 7566.22
9674.42 7918.14 7918.14
9170.99 7483.08 7483.08
8720 7093.33 7093.33
8746.67 7093.33 7093.33
-192.761 902.933 902.933
989.97 2065.02 2065.02
1000.73 2071.27 2071.27
1008.48 2071.27 2071.27
1019.33 2077.57 2077.57
1033.39 2090.28 2090.28
1044.42 2096.69 2096.69
1312.58 2485.53 2485.53
1116 1068 1068
1118.25 1066.33 1066.33
1173 1058.08 1058.08
3002.35 2512.94 2512.94
